ply
format ascii 1.0
element vertex 1288
property float x
property float y
property float z
property uchar red
property uchar green
property uchar blue
end_header
55.9988 -9.19024 11.222 255 255 255
59.5386 -9.7623 25.4153 255 255 255
53.1302 -6.90665 -30.4088 255 255 255
-62.3811 -7.94597 -23.2788 255 255 255
-16.1669 -10.2974 28.3429 255 255 255
5.25252 -10.6863 36.7483 255 255 255
58.5588 -9.87422 20.6461 255 255 255
58.9687 -10.0608 22.5705 255 255 255
60.5506 -10.3101 27.2817 255 255 255
60.5603 -10.3018 27.2909 255 255 255
56.6581 -9.41566 4.71699 255 255 255
58.1519 -10.0248 16.8032 255 255 255
58.645 -10.2969 21.4359 255 255 255
-70.3196 -9.73678 -3.29481 255 255 255
-68.3082 -10.2283 2.60852 255 255 255
48.5427 -8.43298 -24.4425 255 255 255
55.3922 -10.1356 9.71803 255 255 255
59.724 -10.5694 23.5448 255 255 255
-25.2538 -10.8775 19.7138 255 255 255
57.12 -10.2697 11.6414 255 255 255
52.0399 -9.78157 -5.04236 255 255 255
52.0399 -9.78157 -5.04236 255 255 255
-18.426 -11.3212 25.9552 255 255 255
7.34365 -11.6978 34.9362 255 255 255
60.1001 -11.0313 23.184 255 255 255
61.2417 -8.4582 -49.3203 255 255 255
-107.143 -10.4405 -23.3589 255 255 255
59.5185 -11.4923 22.7639 255 255 255
-0.581641 -12.2884 38.8316 255 255 255
-0.292023 -12.1903 37.7732 255 255 255
61.3019 -11.4836 24.7051 255 255 255
60.012 -11.6409 24.2587 255 255 255
53.6008 -10.5626 -16.7238 255 255 255
59.7089 -11.844 23.2069 255 255 255
52.5032 -11.3514 -7.57735 255 255 255
55.0799 -11.8288 5.68172 255 255 255
6.52202 -12.8784 38.125 255 255 255
57.2063 -12.4627 11.9546 255 255 255
-18.9723 -13.1301 28.1464 255 255 255
54.7005 -12.5791 1.34482 255 255 255
60.0486 -13.0169 25.2024 255 255 255
54.5156 -12.9921 0.159454 255 255 255
55.4975 -13.04 3.81614 255 255 255
55.3927 -12.9963 3.93385 255 255 255
61.0904 -13.4688 26.6798 255 255 255
53.2739 -12.7231 -21.0748 255 255 255
53.2739 -12.7231 -21.0748 255 255 255
55.4078 -13.3745 4.13361 255 255 255
-48.1494 -13.0517 -15.8807 255 255 255
56.0738 -13.7972 5.39914 255 255 255
56.0425 -13.807 5.4117 255 255 255
57.39 -13.4714 -7.15962 255 255 255
-6.45049 -14.3956 40.7788 255 255 255
61.5043 -13.9753 27.2964 255 255 255
-9.49745 -14.4182 37.9593 255 255 255
61.346 -14.054 26.8441 255 255 255
55.2046 -13.788 -12.2658 255 255 255
56.7046 -14.4794 11.5106 255 255 255
61.2805 -14.2991 26.4557 255 255 255
-70.3545 -13.9939 -18.5275 255 255 255
61.3087 -14.4614 25.4207 255 255 255
-69.9378 -14.2403 -15.8614 255 255 255
-6.56611 -14.7681 39.7436 255 255 255
-17.2801 -14.8114 31.1849 255 255 255
57.0198 -14.8035 8.35588 255 255 255
56.4551 -14.8483 9.03195 255 255 255
77.5226 -14.1287 4.17946 255 255 255
54.0317 -14.4318 -8.31031 255 255 255
57.7283 -14.4112 -27.1254 255 255 255
-36.3044 -15.292 -11.4542 255 255 255
7.34153 -15.2764 35.7803 255 255 255
-11.6189 -15.4382 36.4001 255 255 255
-49.8876 -15.6656 -13.1356 255 255 255
57.4739 -15.8073 9.80765 255 255 255
53.7096 -15.9444 -15.9746 255 255 255
-48.0908 -16.3481 -12.93 255 255 255
10.7271 -15.9494 37.6909 255 255 255
-13.7375 -16.3201 33.9897 255 255 255
56.5123 -16.828 4.62713 255 255 255
57.2683 -16.8248 8.95307 255 255 255
57.2683 -16.8248 8.95307 255 255 255
57.109 -16.9636 4.85855 255 255 255
0.980188 -16.4029 41.4014 255 255 255
-47.8543 -17.1233 -9.51981 255 255 255
-47.2618 -17.053 -6.58262 255 255 255
56.1002 -17.1498 2.09002 255 255 255
-18.1992 -16.9992 31.529 255 255 255
-58.4252 -17.9272 -10.6816 255 255 255
-8.27061 -17.097 39.1215 255 255 255
-20.2895 -17.484 29.9667 255 255 255
-43.4336 -18.7736 -8.44597 255 255 255
-19.9507 -17.8091 30.2177 255 255 255
-58.1194 -18.7204 -10.5073 255 255 255
10.8981 -17.6733 36.5756 255 255 255
57.5567 -19.2331 6.4549 255 255 255
58.2102 -19.1618 10.3042 255 255 255
1.90397 -18.0815 41.3021 255 255 255
-54.2825 -20.3829 -7.74661 255 255 255
58.3856 -20.3527 7.24119 255 255 255
77.115 -20.1629 3.21941 255 255 255
-2.32147 -19.1536 40.9284 255 255 255
-55.1225 -21.4911 -5.97541 255 255 255
7.08152 -19.3712 39.2197 255 255 255
-1.35388 -19.3665 40.8237 255 255 255
-15.4213 -19.5985 36.7289 255 255 255
7.37192 -19.5316 39.2043 255 255 255
63.8289 -21.6177 -5.41044 255 255 255
57.8672 -21.4768 5.60109 255 255 255
-5.09061 -20.2257 40.0122 255 255 255
20.8982 -20.7512 30.7752 255 255 255
-7.07586 -20.4238 39.133 255 255 255
-7.09256 -20.4203 39.2176 255 255 255
-12.0391 -20.6261 38.1632 255 255 255
-12.0391 -20.6261 38.1632 255 255 255
58.7264 -22.6965 3.83116 255 255 255
45.369 -23.3329 -3.36939 255 255 255
-11.9185 -20.9564 38.6688 255 255 255
59.7886 -22.9446 9.61687 255 255 255
59.0492 -23.2597 9.7243 255 255 255
59.303 -23.2188 9.37531 255 255 255
65.0492 -23.8301 -7.19261 255 255 255
47.617 -24.0678 -2.47258 255 255 255
-16.2083 -21.7043 35.3736 255 255 255
44.7023 -24.2521 -2.56018 255 255 255
10.9966 -22.0404 38.5347 255 255 255
62.2091 -25.291 -10.9169 255 255 255
-15.4803 -22.3779 36.0723 255 255 255
67.411 -25.3443 -5.59513 255 255 255
-40.2266 -25.565 0.199965 255 255 255
-5.14787 -22.6883 37.9306 255 255 255
44.5469 -25.9667 0.908299 255 255 255
44.2767 -25.9652 1.37435 255 255 255
-17.3927 -23.3481 36.7546 255 255 255
45.4907 -26.5387 0.448803 255 255 255
45.4907 -26.5387 0.448803 255 255 255
60.8911 -26.0353 11.1315 255 255 255
61.1463 -25.9646 10.8308 255 255 255
-5.25891 -23.5895 41.7859 255 255 255
-18.5976 -24.4623 36.5503 255 255 255
10.4743 -24.4779 33.9216 255 255 255
62.4959 -26.6922 18.8768 255 255 255
-10.6724 -24.7944 39.0527 255 255 255
-10.6724 -24.7944 39.0527 255 255 255
-15.794 -25.1361 38.9076 255 255 255
-19.9018 -25.8428 33.1155 255 255 255
63.4925 -28.056 19.0019 255 255 255
64.1051 -27.9069 23.0759 255 255 255
15.0204 -25.8392 38.5052 255 255 255
16.0711 -25.9215 38.5823 255 255 255
-9.45641 -25.7524 40.1726 255 255 255
-11.2001 -25.9496 40.4862 255 255 255
-8.03579 -26.0605 40.3734 255 255 255
57.51 -31.3422 -1.9 255 255 255
10.9226 -27.1777 34.6284 255 255 255
63.376 -29.8944 17.3309 255 255 255
75.1098 -31.515 -0.617991 255 255 255
-11.2661 -26.5995 40.5535 255 255 255
64.1517 -30.0163 22.0513 255 255 255
78.7976 -31.9346 1.73369 255 255 255
-7.35554 -27.2789 41.5442 255 255 255
-15.8361 -28.3828 36.3455 255 255 255
11.6071 -27.7574 40.9913 255 255 255
4.94906 -28.0948 38.6603 255 255 255
-12.9286 -28.0341 42.652 255 255 255
-4.13984 -28.3789 42.5589 255 255 255
-4.17528 -28.3558 42.7349 255 255 255
52.3145 -33.8798 8.73295 255 255 255
-51.4332 -33.325 11.6126 255 255 255
-38.3117 -32.9859 14.3758 255 255 255
7.71834 -28.9017 42.8612 255 255 255
-37.4479 -33.2606 14.966 255 255 255
-7.61504 -29.6889 42.2354 255 255 255
6.46472 -29.5706 43.7473 255 255 255
6.44649 -29.5919 43.952 255 255 255
-51.427 -34.4247 12.3341 255 255 255
-37.1762 -33.9114 14.7772 255 255 255
-38.4295 -34.0383 16.3176 255 255 255
-0.362553 -29.8244 44.18 255 255 255
41.5843 -35.2004 13.101 255 255 255
-8.82349 -30.8527 40.3637 255 255 255
-16.2698 -32.4789 32.33 255 255 255
1.04008 -31.5656 42.1521 255 255 255
14.5859 -33.5073 33.2901 255 255 255
-34.8753 -36.5436 16.4686 255 255 255
-16.2358 -33.9142 31.6308 255 255 255
46.4962 -37.3248 15.8168 255 255 255
11.0891 -34.2298 35.3444 255 255 255
4.82604 -34.2907 36.3905 255 255 255
-30.5169 -37.7672 20.1906 255 255 255
65.1083 -41.3955 5.28887 255 255 255
1.84531 -36.3187 38.0292 255 255 255
2.25438 -36.5608 37.602 255 255 255
2.21981 -36.5417 37.7547 255 255 255
2.24651 -37.5632 34.313 255 255 255
1.72763 -36.9251 37.498 255 255 255
-12.5817 -38.0057 32.9559 255 255 255
5.23837 -37.5681 36.0392 255 255 255
5.46683 -38.5659 35.1135 255 255 255
-5.21311 -38.8352 34.8325 255 255 255
51.4498 -45.3387 23.4508 255 255 255
-10.8188 -41.2729 35.8959 255 255 255
30.2294 -45.0538 25.5563 255 255 255
28.6359 -45.3535 26.2483 255 255 255
29.2324 -45.5971 24.7208 255 255 255
29.1047 -45.4597 26.0748 255 255 255
41.4493 -46.0759 26.0722 255 255 255
-29.4495 -45.3114 28.7423 255 255 255
-11.0771 -44.3602 32.7524 255 255 255
41.0389 -47.4696 24.5413 255 255 255
25.7148 -46.5381 27.5829 255 255 255
62.2968 -50.3836 15.1053 255 255 255
-20.4293 -45.447 31.513 255 255 255
34.278 -47.0831 28.6007 255 255 255
27.1394 -47.3644 29.0305 255 255 255
41.3168 -47.8569 28.4133 255 255 255
-3.34563 -45.8687 34.641 255 255 255
66.7891 -53.0236 15.3802 255 255 255
24.9525 -48.5733 30.0436 255 255 255
56.2884 -52.0696 20.2644 255 255 255
32.4883 -51.0852 34.1758 255 255 255
23.9051 -51.2468 34.2293 255 255 255
-22.457 -50.6782 35.0391 255 255 255
19.2962 -51.3685 36.6632 255 255 255
-0.970926 -51.6397 37.4702 255 255 255
-30.9672 -49.8474 43.1049 255 255 255
-9.52237 -51.8222 39.1547 255 255 255
50.2288 -57.1198 27.6715 255 255 255
-8.43685 -52.5374 38.2857 255 255 255
-14.62 -52.4804 38.9092 255 255 255
-8.1049 -52.894 39.3028 255 255 255
-69.1681 -56.3652 32.2876 255 255 255
26.9265 -53.8785 38.5797 255 255 255
-10.7434 -53.101 39.3992 255 255 255
34.5186 -56.0605 34.46 255 255 255
-10.9115 -53.5149 40.0118 255 255 255
-3.25166 -53.9926 41.6215 255 255 255
18.4414 -55.2633 39.2128 255 255 255
-29.8663 -54.6257 40.3905 255 255 255
-6.25138 -54.3934 41.057 255 255 255
-6.34934 -53.9507 41.8499 255 255 255
52.8127 49.1367 -6.48128 255 255 255
-48.7072 61.6213 -37.9088 255 255 255
-38.818 62.8899 -42.2427 255 255 255
60.4621 93.0189 -109.17 255 255 255
-63.0438 56.3675 -26.6583 255 255 255
-63.0084 56.1407 -26.2222 255 255 255
6.02763 76.7294 -74.8947 255 255 255
54.5233 48.6124 -7.36313 255 255 255
52.3201 92.8406 -112.837 255 255 255
-76.848 52.6686 -19.5273 255 255 255
-77.5613 53.6533 -21.8457 255 255 255
-58.3458 57.6305 -32.6258 255 255 255
-30.6582 64.875 -51.6228 255 255 255
-5.8799 72.6457 -70.6072 255 255 255
32.13 83.9528 -96.5634 255 255 255
32.13 83.9528 -96.5634 255 255 255
-66.3902 53.2923 -24.0268 255 255 255
70.9742 95.5151 -122.837 255 255 255
-52.0824 57.2144 -35.2644 255 255 255
74.0687 93.6738 -119.224 255 255 255
52.6421 47.2345 -9.85924 255 255 255
-62.2684 54.2048 -29.9635 255 255 255
-74.829 51.7125 -23.3016 255 255 255
40.0908 87.4533 -110.816 255 255 255
49.317 48.646 -15.7987 255 255 255
27.6081 79.9786 -93.005 255 255 255
54.569 44.0343 -3.87116 255 255 255
-48.1651 56.9711 -39.7819 255 255 255
-48.6145 58.1498 -41.8187 255 255 255
27.5398 78.9099 -94.455 255 255 255
-63.545 53.8526 -31.9567 255 255 255
-23.9075 64.6242 -60.4113 255 255 255
-23.7591 64.3027 -59.6928 255 255 255
48.4519 33.065 21.1742 255 255 255
46.9329 34.0939 17.848 255 255 255
40.1984 88.1872 -118.295 255 255 255
48.5493 32.2754 22.1678 255 255 255
33.3094 80.2861 -100.776 255 255 255
-50.3799 56.0881 -43.0316 255 255 255
-50.5016 55.7005 -42.4763 255 255 255
-62.559 52.0232 -32.8045 255 255 255
-48.3188 55.5332 -43.6798 255 255 255
-48.4363 56.0827 -44.7453 255 255 255
-63.2109 50.9176 -31.0066 255 255 255
-37.0663 59.0322 -53.4848 255 255 255
-4.49245 68.0325 -79.2839 255 255 255
52.8007 28.8875 26.8919 255 255 255
-50.6228 54.3056 -44.1853 255 255 255
80.4542 88.7709 -130.74 255 255 255
-8.25181 65.2512 -74.1164 255 255 255
51.4811 43.0758 -13.7299 255 255 255
50.2581 30.311 20.9771 255 255 255
50.4584 28.6063 25.1791 255 255 255
9.72192 70.1124 -87.5482 255 255 255
112.878 119.601 -215.346 255 255 255
-125.359 72.9174 -93.8572 255 255 255
-2.52985 65.7029 -79.5922 255 255 255
51.9052 28.2685 25.1916 255 255 255
-132.81 78.0336 -108.924 255 255 255
48.1541 30.3074 17.5394 255 255 255
-5.24463 66.2746 -84.2119 255 255 255
-5.56048 63.7725 -77.2744 255 255 255
-16.805 61.8907 -73.838 255 255 255
11.4793 67.9102 -89.5563 255 255 255
53.5439 24.4565 32.9452 255 255 255
-49.3215 52.8972 -49.0237 255 255 255
-12.5445 61.8391 -74.5314 255 255 255
-12.5504 62.0245 -74.9544 255 255 255
26.138 72.3862 -102.076 255 255 255
50.2748 43.7423 -22.3763 255 255 255
50.1793 43.7673 -22.5825 255 255 255
49.2827 28.2239 21.3623 255 255 255
51.5721 42.4085 -19.2688 255 255 255
51.5721 42.4085 -19.2688 255 255 255
-22.6882 58.5201 -67.3036 255 255 255
-16.2135 60.9273 -74.7998 255 255 255
53.7768 25.3144 29.2389 255 255 255
-79.3561 48.941 -39.1759 255 255 255
35.0044 73.583 -109.83 255 255 255
-54.8751 49.4105 -43.1157 255 255 255
-54.8751 49.4105 -43.1157 255 255 255
27.7374 71.682 -105.172 255 255 255
-6.30158 63.0887 -82.4929 255 255 255
-22.0704 58.0411 -69.4687 255 255 255
-62.2872 47.6221 -39.1503 255 255 255
-34.7975 55.0291 -61.3737 255 255 255
-23.3912 57.1308 -68.0135 255 255 255
-23.3544 56.9962 -67.7063 255 255 255
-23.4779 57.9523 -70.3598 255 255 255
-71.2271 41.4413 -23.0725 255 255 255
-21.26 57.0824 -70.5569 255 255 255
-5.70729 61.3635 -82.794 255 255 255
-40.0254 52.7016 -58.2638 255 255 255
-77.1025 48.5713 -44.4 255 255 255
53.8282 23.8458 28.8792 255 255 255
49.5268 41.2867 -23.9164 255 255 255
-15.673 55.7344 -70.2309 255 255 255
-5.73422 60.2291 -84.516 255 255 255
55.4435 23.7341 27.5441 255 255 255
55.7985 21.9504 33.3508 255 255 255
56.1301 21.0224 36.298 255 255 255
-139.179 75.5863 -126.142 255 255 255
49.8385 39.6641 -23.9512 255 255 255
49.901 39.7794 -24.0717 255 255 255
52.2069 39.3788 -22.1167 255 255 255
-7.84288 58.9813 -84.3304 255 255 255
-5.79814 59.1879 -85.0941 255 255 255
-51.7471 48.4062 -54.939 255 255 255
-37.3783 51.6874 -65.4131 255 255 255
-38.0257 50.8054 -65.6482 255 255 255
-40.5678 49.5855 -61.7683 255 255 255
-51.3594 46.1462 -54.3363 255 255 255
-63.2948 42.968 -45.5147 255 255 255
-40.6928 48.3992 -63.4977 255 255 255
-65.734 41.5661 -41.552 255 255 255
-43.8422 47.9633 -63.476 255 255 255
-25.2453 52.008 -75.7855 255 255 255
-60.6891 42.5067 -46.2209 255 255 255
-60.6891 42.5067 -46.2209 255 255 255
-42.1233 46.6565 -60.0437 255 255 255
-42.037 47.2809 -61.306 255 255 255
-56.5023 44.0997 -51.7077 255 255 255
49.1382 22.9483 17.4023 255 255 255
-48.7833 44.1683 -55.3059 255 255 255
-43.1552 45.1281 -62.4085 255 255 255
46.8726 23.6451 11.0816 255 255 255
46.5002 23.6565 10.5711 255 255 255
-23.4274 49.0554 -78.7582 255 255 255
-51.5223 42.5295 -57.7904 255 255 255
-51.5334 42.8493 -58.896 255 255 255
-51.7741 41.4882 -57.5986 255 255 255
-51.8536 41.7199 -58.0911 255 255 255
-4.3127 52.9232 -97.5983 255 255 255
-4.39043 53.0098 -97.6731 255 255 255
-81.5568 39.1566 -47.9116 255 255 255
-53.671 42.0783 -60.3086 255 255 255
52.1982 30.9506 -21.17 255 255 255
-72.3488 37.2102 -44.0802 255 255 255
-72.1427 37.0944 -43.502 255 255 255
53.1504 29.4603 -19.3608 255 255 255
-40.3775 42.7733 -71.404 255 255 255
51.3529 27.2986 -13.4755 255 255 255
49.6605 18.4955 17.259 255 255 255
54.2317 27.8447 -17.5717 255 255 255
53.0531 28.071 -19.1653 255 255 255
-70.301 35.5916 -49.9119 255 255 255
50.8559 30.4785 -30.0745 255 255 255
58.3784 15.5954 29.1004 255 255 255
-138.517 55.5084 -121.319 255 255 255
53.8234 27.1633 -18.9588 255 255 255
53.5642 26.9952 -18.5153 255 255 255
49.5833 17.8962 15.991 255 255 255
-82.7695 33.4851 -45.565 255 255 255
-82.9176 33.5759 -46.0299 255 255 255
-64.932 35.3521 -54.6457 255 255 255
-58.4891 35.7918 -57.2401 255 255 255
54.5805 15.1214 25.8543 255 255 255
-82.578 33.8568 -48.8878 255 255 255
55.3439 13.3774 30.9085 255 255 255
55.6912 13.6906 30.2795 255 255 255
57.39 13.2029 32.1898 255 255 255
52.9731 42.8719 -91.2514 255 255 255
-58.4422 34.9488 -64.4613 255 255 255
-35.0859 38.0302 -81.7644 255 255 255
-82.5758 30.8047 -50.2671 255 255 255
-77.2291 31.446 -54.1399 255 255 255
-70.9216 29.8176 -51.2476 255 255 255
-71.1216 31.2302 -56.2866 255 255 255
-122.86 41.6253 -99.6314 255 255 255
48.2432 15.4061 8.46653 255 255 255
48.0893 15.3252 8.66004 255 255 255
50.6323 13.8435 14.9833 255 255 255
54.6979 11.6659 25.1859 255 255 255
48.2962 14.7963 8.40568 255 255 255
57.7294 12.5085 21.8446 255 255 255
-3.29869 35.1727 -84.0513 255 255 255
58.1939 10.1119 31.5604 255 255 255
58.2399 9.84541 32.024 255 255 255
4.90553 32.71 -79.2691 255 255 255
51.9369 12.1281 17.2837 255 255 255
2.42073 32.861 -81.1554 255 255 255
47.5249 13.8979 6.95262 255 255 255
-85.4235 26.4563 -53.7038 255 255 255
4.44584 30.3216 -75.5117 255 255 255
-45.2867 30.2113 -75.3185 255 255 255
48.4082 14.1704 2.08207 255 255 255
3.62579 28.8977 -72.0027 255 255 255
5.27807 30.3478 -77.5768 255 255 255
5.02785 29.3048 -73.5727 255 255 255
54.7177 9.69151 23.4035 255 255 255
-38.4967 29.0122 -73.1054 255 255 255
-8.57445 28.7723 -73.9224 255 255 255
-8.90602 28.9811 -75.403 255 255 255
5.81764 28.5247 -72.9132 255 255 255
-12.2877 28.3588 -72.4754 255 255 255
-113.355 30.0673 -80.278 255 255 255
-79.9306 23.8567 -52.7507 255 255 255
37.3223 26.621 -69.6784 255 255 255
-35.8155 26.7702 -73.2474 255 255 255
-82.2013 21.2587 -49.3288 255 255 255
-110.525 26.6237 -75.4757 255 255 255
57.1248 5.88058 32.7334 255 255 255
-81.1801 20.7613 -48.8004 255 255 255
50.4498 9.58388 10.7858 255 255 255
58.4921 5.69553 32.8469 255 255 255
-9.31177 23.2693 -65.9048 255 255 255
27.3809 24.6572 -72.156 255 255 255
-84.6559 20.8089 -55.9386 255 255 255
57.8598 5.25339 30.4359 255 255 255
58.1196 5.05113 31.6434 255 255 255
-18.4014 21.9979 -67.0239 255 255 255
58.3722 5.22402 30.449 255 255 255
58.0744 4.94913 30.9466 255 255 255
57.7949 4.70045 30.7477 255 255 255
57.8131 4.30114 32.2584 255 255 255
60.2438 5.13069 28.2566 255 255 255
60.2438 5.13069 28.2566 255 255 255
-54.319 17.3714 -52.361 255 255 255
50.3225 10.0645 -10.2358 255 255 255
49.645 7.41266 5.58281 255 255 255
54.2678 5.52656 17.7102 255 255 255
59.5012 4.40345 27.0056 255 255 255
57.9338 3.44709 30.1243 255 255 255
-9.93551 15.5774 -56.4698 255 255 255
49.5906 6.14465 3.26976 255 255 255
49.8208 5.67808 3.70676 255 255 255
64.3657 6.05565 0.923729 255 255 255
49.9355 4.76142 3.07762 255 255 255
-15.0641 12.2839 -52.0606 255 255 255
55.4412 2.9462 16.9654 255 255 255
54.7079 2.69478 18.0088 255 255 255
-2.45775 0.601667 24.521 255 255 255
57.0877 0.429151 28.9065 255 255 255
57.8352 0.762407 27.7489 255 255 255
-50.0653 9.83438 -43.8885 255 255 255
53.1535 2.2668 14.0438 255 255 255
53.21 2.29058 13.6429 255 255 255
-39.8335 9.17693 -45.5825 255 255 255
54.4007 1.12048 18.1785 255 255 255
-21.6322 9.06899 -47.2622 255 255 255
-72.2384 5.30269 -21.2368 255 255 255
-43.3071 8.47295 -46.3909 255 255 255
50.0107 2.79347 1.65895 255 255 255
-40.275 8.17974 -46.9061 255 255 255
-36.1376 7.07085 -42.3431 255 255 255
-42.2192 6.67686 -41.693 255 255 255
58.995 -1.09013 27.0453 255 255 255
51.7859 0.693365 5.62453 255 255 255
-116.643 5.97916 -43.2161 255 255 255
-11.8621 -2.80736 27.3671 255 255 255
53.6333 -0.349826 10.2959 255 255 255
-27.9527 4.95411 -41.8653 255 255 255
54.4928 -0.861835 13.3816 255 255 255
54.7029 -0.807902 13.0619 255 255 255
-64.736 4.46369 -37.7296 255 255 255
-45.7593 4.03397 -36.2649 255 255 255
55.7038 -0.921201 12.523 255 255 255
55.1924 -1.75461 17.0212 255 255 255
55.4588 -1.65722 16.5841 255 255 255
55.8981 -2.73342 23.5679 255 255 255
54.6052 -2.3152 15.6735 255 255 255
56.0545 -2.40571 19.0367 255 255 255
55.3132 -2.73679 18.9613 255 255 255
-15.1803 -3.06142 16.3827 255 255 255
54.3095 -2.90965 13.2683 255 255 255
54.3095 -2.90965 13.2683 255 255 255
-16.0823 -3.74227 15.9759 255 255 255
58.6943 -4.26001 26.0655 255 255 255
59.0987 -4.18067 25.5474 255 255 255
59.0987 -4.18067 25.5474 255 255 255
54.6497 -3.69427 15.3235 255 255 255
54.851 -3.58074 12.8755 255 255 255
56.8579 -4.16058 19.0255 255 255 255
56.8144 -4.16153 19.0382 255 255 255
-6.22566 -6.36825 36.1313 255 255 255
52.6607 -3.22497 2.72706 255 255 255
-16.0495 -4.82895 17.4233 255 255 255
50.2855 -2.89426 -2.91914 255 255 255
50.3813 -2.80725 -3.40398 255 255 255
56.1117 -4.75768 18.801 255 255 255
57.4403 -4.86507 20.6062 255 255 255
57.752 -5.17545 23.8993 255 255 255
11.4333 -6.43959 29.7358 255 255 255
58.0516 -5.56435 20.3571 255 255 255
55.1489 -5.22642 12.915 255 255 255
-41.5387 -2.10881 -30.2332 255 255 255
56.8611 -5.49192 17.1026 255 255 255
56.6504 -5.5371 17.4082 255 255 255
-41.5514 -2.72818 -30.7887 255 255 255
51.6693 -3.71827 -14.6106 255 255 255
56.7338 -6.08552 15.6787 255 255 255
57.7183 -6.43964 19.7858 255 255 255
50.6837 -4.63407 -10.7984 255 255 255
-38.6295 -3.65293 -28.4527 255 255 255
-3.45706 -8.57037 38.7724 255 255 255
54.3121 -6.42158 8.79778 255 255 255
56.5296 -6.82655 17.1194 255 255 255
52.9212 -4.31529 -21.062 255 255 255
54.5023 -6.91069 9.42613 255 255 255
54.9041 -6.86432 8.98973 255 255 255
-6.97703 -9.53929 38.1654 255 255 255
-41.5116 -6.64002 -25.8114 255 255 255
54.7098 -8.14684 6.78007 255 255 255
62.0673 -6.98338 -6.88351 255 255 255
-64.2094 -6.62385 -26.3464 255 255 255
55.989 -8.50379 11.0624 255 255 255
-1.18676 -10.4005 40.0623 255 255 255
55.5879 -8.95349 9.49034 255 255 255
1.14829 -10.6082 38.0712 255 255 255
59.6101 -9.44316 22.9726 255 255 255
-59.257 -7.97589 -23.1933 255 255 255
54.9514 -9.14011 7.82272 255 255 255
56.4878 -9.5983 11.3558 255 255 255
59.3538 -10.6766 23.2358 255 255 255
54.8675 -10.3562 5.5948 255 255 255
60.1521 -10.8441 24.7179 255 255 255
57.0449 -10.8064 14.0026 255 255 255
54.8473 -10.7147 4.19956 255 255 255
51.6339 -9.80739 -23.9836 255 255 255
57.6383 -11.4616 14.9107 255 255 255
57.6383 -11.4616 14.9107 255 255 255
-98.8553 -10.7997 -21.6305 255 255 255
-42.226 -10.5661 -18.282 255 255 255
-14.0206 -12.4019 32.7242 255 255 255
6.21226 -12.5289 35.9543 255 255 255
56.3701 -11.9928 9.62331 255 255 255
59.8875 -12.1418 23.6374 255 255 255
58.0063 -12.241 14.9926 255 255 255
44.8235 -11.3862 -19.6339 255 255 255
51.025 -12.1733 -11.3125 255 255 255
55.6304 -12.0545 -9.22605 255 255 255
56.2728 -12.6297 8.60552 255 255 255
56.2728 -12.6297 8.60552 255 255 255
10.5104 -13.2526 37.4935 255 255 255
57.9254 -12.8397 14.6939 255 255 255
-47.0145 -12.3027 -16.5029 255 255 255
56.7617 -12.9451 11.2804 255 255 255
-52.8894 -12.6055 -16.9404 255 255 255
-54.5362 -12.9486 -16.4744 255 255 255
-16.0057 -13.6596 30.5813 255 255 255
-45.0696 -13.0452 -15.6737 255 255 255
11.947 -13.7978 36.0771 255 255 255
56.755 -13.4593 9.55369 255 255 255
56.755 -13.4593 9.55369 255 255 255
60.7333 -13.377 24.9342 255 255 255
60.6518 -13.4106 25.0273 255 255 255
54.849 -13.3408 1.30034 255 255 255
54.7691 -13.3727 1.41738 255 255 255
61.0759 -13.1408 9.61801 255 255 255
57.9335 -13.3999 14.604 255 255 255
57.9473 -13.4365 14.6014 255 255 255
-53.8586 -13.3666 -15.9968 255 255 255
49.6939 -12.901 -19.4834 255 255 255
-54.9206 -13.5611 -16.2266 255 255 255
55.2346 -13.754 2.51191 255 255 255
54.7737 -13.7751 3.15409 255 255 255
-59.4533 -13.5141 -17.4684 255 255 255
60.9721 -13.9409 24.8479 255 255 255
-52.1278 -13.8945 -15.653 255 255 255
54.5798 -14.088 -14.2369 255 255 255
-44.5603 -14.8946 -12.9227 255 255 255
55.2712 -14.8864 -1.40243 255 255 255
61.414 -15.0382 27.4833 255 255 255
-44.8011 -15.1861 -12.0777 255 255 255
56.23 -15.4172 -9.98302 255 255 255
57.8452 -15.3097 -13.2552 255 255 255
57.5921 -15.6828 10.6612 255 255 255
58.6588 -15.6566 13.5768 255 255 255
55.4236 -15.5654 -3.02438 255 255 255
-61.8038 -15.9948 -13.3191 255 255 255
57.0365 -16.0724 6.47054 255 255 255
57.797 -16.7669 10.0333 255 255 255
57.8061 -16.7766 10.0613 255 255 255
57.9643 -16.78 9.92413 255 255 255
56.1158 -16.9775 4.04145 255 255 255
4.16397 -16.4489 37.8085 255 255 255
19.3582 -16.8094 23.0987 255 255 255
10.9241 -16.9803 35.9363 255 255 255
-46.9972 -18.0425 -9.08638 255 255 255
-46.9813 -18.1655 -9.10381 255 255 255
-12.7645 -17.2181 35.264 255 255 255
-53.7211 -18.3498 -9.4212 255 255 255
-22.8202 -17.6245 29.7956 255 255 255
-14.1037 -17.6788 33.6265 255 255 255
4.89211 -17.5597 40.4901 255 255 255
-51.012 -18.5683 -2.33515 255 255 255
-46.5415 -18.7436 -8.06238 255 255 255
60.7794 -18.4391 5.82134 255 255 255
58.3062 -18.5947 9.97111 255 255 255
-54.3509 -19.0914 -8.85151 255 255 255
11.2181 -18.5075 36.4642 255 255 255
-43.0826 -20.6256 -6.59907 255 255 255
61.0878 -19.5564 15.6455 255 255 255
-42.3849 -20.5377 -6.13959 255 255 255
-22.4629 -19.1119 31.001 255 255 255
-22.4014 -19.131 31.5372 255 255 255
-1.14476 -18.8126 41.1384 255 255 255
-1.16619 -18.8215 41.1479 255 255 255
63.9799 -20.3244 -5.85525 255 255 255
57.2039 -20.7515 2.91709 255 255 255
61.6366 -20.2147 20.2466 255 255 255
-56.6794 -22.4695 -5.64222 255 255 255
58.0786 -22.6452 4.53315 255 255 255
-48.5102 -24.4089 -1.18683 255 255 255
11.9245 -21.9298 38.2712 255 255 255
46.0102 -25.0053 -4.20156 255 255 255
61.0512 -24.3926 12.8173 255 255 255
-11.661 -22.7239 38.8415 255 255 255
-48.6092 -25.3605 7.99578 255 255 255
58.4891 -26.5644 2.77883 255 255 255
-46.9116 -25.6684 6.05098 255 255 255
61.9142 -26.5815 15.8569 255 255 255
61.4902 -26.4483 16.3445 255 255 255
-0.643418 -23.9439 41.7894 255 255 255
5.12356 -24.4949 37.4992 255 255 255
0.889314 -24.2309 41.2543 255 255 255
-23.8357 -26.2878 21.4407 255 255 255
-5.67554 -24.5221 41.3179 255 255 255
10.3572 -24.7909 38.5916 255 255 255
63.3688 -27.0988 18.8867 255 255 255
2.33811 -25.0592 38.7356 255 255 255
71.8814 -29.1816 -1.46323 255 255 255
64.3134 -27.2233 23.7394 255 255 255
60.3346 -29.7743 5.61613 255 255 255
-10.884 -25.5658 39.8881 255 255 255
-48.6376 -29.5864 7.62928 255 255 255
-10.7462 -26.3283 40.3758 255 255 255
63.8043 -29.3549 19.0695 255 255 255
8.48291 -26.7476 40.2606 255 255 255
-48.948 -30.0939 15.147 255 255 255
-12.9577 -27.2116 41.4878 255 255 255
-19.7917 -28.8657 30.9646 255 255 255
-10.5307 -27.7919 41.1079 255 255 255
11.1348 -27.9236 41.079 255 255 255
-13.0102 -27.7156 42.3396 255 255 255
-13.0062 -27.721 42.3407 255 255 255
64.0703 -31.4055 20.396 255 255 255
-47.0183 -31.3376 19.1333 255 255 255
9.89946 -28.2296 41.7348 255 255 255
63.5307 -33.0918 10.1563 255 255 255
64.507 -32.6767 20.5107 255 255 255
-9.10826 -29.715 40.1641 255 255 255
1.85212 -29.8872 41.2032 255 255 255
5.73321 -29.7271 43.456 255 255 255
0.513796 -30.4099 43.1473 255 255 255
10.0692 -33.5972 36.544 255 255 255
-10.7212 -34.1589 35.777 255 255 255
-6.18152 -35.1079 37.6557 255 255 255
12.5508 -36.6832 32.1082 255 255 255
14.9309 -37.6575 31.1138 255 255 255
16.8494 -38.9924 31.3539 255 255 255
58.1894 -45.3495 13.0017 255 255 255
20.534 -43.0264 26.7594 255 255 255
20.2379 -42.9019 27.8828 255 255 255
-5.46255 -42.5733 37.5227 255 255 255
27.8593 -46.9139 26.449 255 255 255
25.7868 -47.237 28.5198 255 255 255
58.2229 -51.1774 18.3557 255 255 255
-29.6727 -47.255 30.0551 255 255 255
53.3542 -52.6516 22.6194 255 255 255
-27.3676 -49.0943 34.1587 255 255 255
51.64 -54.0307 24.1973 255 255 255
-18.4952 -50.7094 36.172 255 255 255
-18.4932 -50.7127 36.1497 255 255 255
-23.2588 -50.9574 36.6046 255 255 255
20.8019 -52.0092 35.4459 255 255 255
-15.8876 -52.1009 37.9883 255 255 255
-13.3826 -52.318 38.389 255 255 255
-30.7586 -50.5055 44.2935 255 255 255
0.769585 -52.9222 38.9024 255 255 255
-8.8208 -52.77 39.3644 255 255 255
-15.1498 -52.8935 39.3133 255 255 255
1.82556 -53.6951 38.2075 255 255 255
-6.46287 -53.1927 39.9556 255 255 255
-4.44212 -53.2803 39.8252 255 255 255
-10.4545 -53.4752 39.4572 255 255 255
-1.86283 -53.5824 40.2768 255 255 255
54.3216 -59.427 27.792 255 255 255
28.1765 -56.1344 37.1586 255 255 255
52.0289 49.7245 -8.29117 255 255 255
-68.371 55.2741 -22.5792 255 255 255
37.6822 86.4488 -95.4341 255 255 255
80.4064 100.047 -124.595 255 255 255
82.9751 100.902 -126.152 255 255 255
24.3998 81.6632 -87.9782 255 255 255
36.594 85.386 -96.2516 255 255 255
-126.529 81.2555 -86.2274 255 255 255
-52.8337 58.7788 -36.1261 255 255 255
54.1136 46.206 -3.98209 255 255 255
53.397 45.5872 -2.66758 255 255 255
-78.0301 52.8438 -20.8953 255 255 255
-28.462 65.5516 -52.8697 255 255 255
-28.462 65.5516 -52.8697 255 255 255
61.6316 91.2466 -111.11 255 255 255
-29.8044 64.8303 -52.2447 255 255 255
-29.9649 64.8836 -52.4163 255 255 255
-4.17838 71.2297 -72.4963 255 255 255
29.8774 80.6519 -94.5774 255 255 255
29.7325 80.3599 -93.9637 255 255 255
-59.9777 55.5392 -34.117 255 255 255
32.3438 80.5603 -96.8358 255 255 255
32.2189 81.4584 -99.9918 255 255 255
32.2189 81.4584 -99.9918 255 255 255
-6.46834 69.2739 -72.1823 255 255 255
36.2602 78.0331 -92.3798 255 255 255
43.7475 94.2781 -132.671 255 255 255
54.3748 43.1809 -5.01572 255 255 255
53.6427 43.5638 -6.52079 255 255 255
14.5522 77.5973 -94.2949 255 255 255
20.3444 79.0409 -97.5092 255 255 255
-79.8598 50.7397 -25.7766 255 255 255
-79.1594 49.7984 -23.4661 255 255 255
-80.422 48.852 -22.2518 255 255 255
80.7089 93.3716 -133.438 255 255 255
56.6117 44.1151 -9.25697 255 255 255
48.3047 31.9353 19.9603 255 255 255
48.3047 31.9353 19.9603 255 255 255
-23.0799 62.4165 -63.581 255 255 255
51.8663 45.8811 -17.6001 255 255 255
32.8875 77.1617 -103.16 255 255 255
47.5709 32.1137 16.2902 255 255 255
47.7538 30.812 18.5286 255 255 255
-5.38962 65.6669 -77.9684 255 255 255
-5.45776 65.4894 -77.479 255 255 255
-85.2244 50.9927 -36.9309 255 255 255
-77.8509 46.161 -26.732 255 255 255
-6.47054 64.5042 -78.2203 255 255 255
-147.542 88.583 -136.78 255 255 255
-61.1811 48.5584 -38.5813 255 255 255
-111.361 62.4885 -76.0962 255 255 255
-75.1498 44.7491 -28.9559 255 255 255
-83.2719 45.0775 -29.6289 255 255 255
53.5442 24.7142 29.0904 255 255 255
47.5237 28.6257 16.756 255 255 255
52.2188 26.1916 23.7826 255 255 255
-6.60781 61.5799 -82.5085 255 255 255
50.9392 40.2493 -20.216 255 255 255
50.9392 40.2493 -20.216 255 255 255
80.4183 88.9949 -159.888 255 255 255
-42.5822 51.7901 -57.2017 255 255 255
52.4438 22.5186 30.3346 255 255 255
-29.8616 54.3756 -68.1417 255 255 255
50.569 39.4853 -21.5301 255 255 255
-44.3681 50.0157 -57.1082 255 255 255
-39.7438 51.0403 -60.9128 255 255 255
-34.2645 52.3477 -65.499 255 255 255
-64.0069 44.4906 -42.0974 255 255 255
-76.0649 42.9993 -37.3739 255 255 255
-82.5038 40.4028 -30.6623 255 255 255
-42.1448 49.0448 -61.3187 255 255 255
47.5238 24.5097 13.7514 255 255 255
-50.5079 45.21 -55.3977 255 255 255
50.9417 23.1977 18.2325 255 255 255
-58.682 43.1746 -50.6208 255 255 255
-39.555 47.3897 -66.9475 255 255 255
-4.22097 55.2471 -92.7426 255 255 255
8.10106 60.7452 -112.013 255 255 255
-52.997 42.7004 -57.245 255 255 255
-145.35 63.8949 -128.576 255 255 255
50.3154 19.4809 19.8041 255 255 255
-136.754 62.4319 -128.719 255 255 255
-28.4714 47.4895 -82.0551 255 255 255
49.1877 34.9077 -35.8246 255 255 255
59.5912 32.8679 -27.9164 255 255 255
-5.94356 49.533 -99.239 255 255 255
-51.9619 38.2983 -64.4683 255 255 255
-51.7779 37.9857 -63.3346 255 255 255
26.8601 47.4419 -99.4748 255 255 255
26.8101 47.7752 -100.354 255 255 255
-136.417 52.2317 -113.914 255 255 255
-126.281 51.758 -112.817 255 255 255
53.1497 27.7287 -23.4574 255 255 255
-55.2117 37.0213 -62.9462 255 255 255
54.6911 14.038 27.8084 255 255 255
-35.8293 39.7745 -79.129 255 255 255
-55.1296 35.6551 -62.5091 255 255 255
52.4046 15.2796 20.0168 255 255 255
69.2061 35.6194 -61.199 255 255 255
60.826 30.5339 -42.2621 255 255 255
48.8822 16.6528 12.2042 255 255 255
49.8394 16.0052 14.5375 255 255 255
-27.2188 40.4559 -87.9216 255 255 255
26.3839 41.1964 -90.7656 255 255 255
1.24684 40.2262 -88.6192 255 255 255
48.8893 15.5228 11.7847 255 255 255
-34.0443 37.7474 -85.1159 255 255 255
-82.488 30.53 -53.3364 255 255 255
-82.488 30.53 -53.3364 255 255 255
-85.0423 29.6659 -52.4014 255 255 255
-67.0518 29.429 -54.7401 255 255 255
61.0637 26.9291 -41.4695 255 255 255
-64.6221 31.7351 -65.636 255 255 255
-46.297 34.1057 -80.5782 255 255 255
-8.78239 33.8226 -81.0379 255 255 255
-8.75963 34.2956 -83.1003 255 255 255
54.2934 11.1946 23.4703 255 255 255
4.41286 34.3522 -83.8844 255 255 255
-78.4376 26.514 -50.9669 255 255 255
-86.8106 26.1551 -55.8984 255 255 255
-82.7181 26.1091 -57.1489 255 255 255
-83.5525 24.8645 -54.4711 255 255 255
2.95306 27.7269 -71.9406 255 255 255
47.7532 13.003 2.42517 255 255 255
27.1446 26.0869 -68.2626 255 255 255
-114.341 27.6872 -78.176 255 255 255
25.3728 27.5235 -78.8838 255 255 255
48.5681 11.0443 4.95582 255 255 255
50.1532 10.7231 6.84026 255 255 255
49.5225 10.4734 7.88049 255 255 255
-117.803 26.7932 -76.5069 255 255 255
47.8975 10.4101 3.28119 255 255 255
-20.2717 22.2577 -65.0583 255 255 255
50.8865 8.59833 11.9256 255 255 255
-82.2536 19.7096 -51.2416 255 255 255
51.2642 8.55845 10.0145 255 255 255
51.5656 8.27878 11.8716 255 255 255
52.6498 7.69788 15.3185 255 255 255
50.0526 9.16117 4.79617 255 255 255
48.5673 8.91186 1.40675 255 255 255
48.4308 8.86146 1.52985 255 255 255
49.9651 7.99674 6.48324 255 255 255
-12.6327 18.6901 -62.4794 255 255 255
46.8368 8.6035 -3.88984 255 255 255
-19.9722 16.1158 -53.0034 255 255 255
52.5095 5.65593 13.4227 255 255 255
52.7785 5.27062 14.4613 255 255 255
-55.4766 16.2966 -57.668 255 255 255
-54.1116 15.2914 -51.6282 255 255 255
49.8792 6.54819 4.64477 255 255 255
49.0821 6.40347 0.790517 255 255 255
-1.50223 1.59765 23.4471 255 255 255
-50.5119 12.0288 -48.5893 255 255 255
-50.5119 12.0288 -48.5893 255 255 255
49.8032 4.49254 1.57358 255 255 255
-3.57099 0.426255 25.4115 255 255 255
55.1644 0.648984 14.5408 255 255 255
63.0169 2.56375 -0.753925 255 255 255
54.3429 0.400391 14.5821 255 255 255
54.3429 0.400391 14.5821 255 255 255
7.63764 -2.31685 30.8734 255 255 255
51.9245 0.64731 7.83776 255 255 255
50.1988 1.22844 -0.79479 255 255 255
54.8284 -0.11925 12.8248 255 255 255
55.192 -0.619156 16.5135 255 255 255
53.9824 -0.3264 12.7503 255 255 255
-6.84846 -3.58499 33.8155 255 255 255
-118.811 6.34109 -48.8623 255 255 255
-118.811 6.34109 -48.8623 255 255 255
54.9157 -1.01217 15.2782 255 255 255
55.483 -1.17028 17.2795 255 255 255
-35.8074 3.90648 -37.3576 255 255 255
54.1806 -1.03993 12.819 255 255 255
-43.6217 3.95903 -38.4463 255 255 255
52.4401 -1.13036 6.85456 255 255 255
-37.7439 3.3034 -38.8298 255 255 255
53.9075 -1.82677 12.9556 255 255 255
51.6925 -1.1406 4.3198 255 255 255
51.6925 -1.1406 4.3198 255 255 255
56.5284 -2.88116 22.2282 255 255 255
54.3968 -2.31028 13.704 255 255 255
56.2718 -3.02097 19.04 255 255 255
56.4301 -3.12702 19.9235 255 255 255
-12.8212 -4.65362 28.9984 255 255 255
57.7113 -3.5943 24.287 255 255 255
58.1068 -3.78283 24.7284 255 255 255
-43.7311 1.18501 -34.0857 255 255 255
-7.80129 -5.39414 34.3046 255 255 255
55.7396 -3.19102 16.0825 255 255 255
52.355 -2.16917 3.57474 255 255 255
56.324 -3.40172 18.0905 255 255 255
57.0074 -3.72361 20.3175 255 255 255
52.8197 -2.8254 5.96901 255 255 255
53.2894 -2.70762 5.19524 255 255 255
54.504 -2.83716 6.28422 255 255 255
56.0545 -3.87459 17.0989 255 255 255
55.4467 -3.78021 14.8433 255 255 255
56.4882 -4.11936 18.3596 255 255 255
-16.6608 -4.63782 17.3387 255 255 255
55.9701 -4.24033 15.2939 255 255 255
-7.29351 -6.88014 36.0919 255 255 255
56.3563 -4.99764 16.6635 255 255 255
57.9623 -5.65209 21.5101 255 255 255
57.9623 -5.65209 21.5101 255 255 255
56.2205 -5.52613 16.2213 255 255 255
-42.9734 -2.33561 -31.3965 255 255 255
57.4027 -5.94617 19.5915 255 255 255
-107.677 -3.0617 -33.3752 255 255 255
-14.5277 -7.58106 29.761 255 255 255
57.4335 -6.738 18.5254 255 255 255
54.0064 -5.47633 -3.10013 255 255 255
58.0519 -6.95581 20.5563 255 255 255
56.6457 -7.10358 15.8839 255 255 255
-41.4584 -4.85871 -26.7769 255 255 255
5.59458 -8.92887 35.9309 255 255 255
57.7617 -7.53711 19.495 255 255 255
59.6926 -8.32653 25.8854 255 255 255
-8.90834 -9.45524 36.642 255 255 255
56.0186 -7.84644 12.2594 255 255 255
57.7192 -8.30189 18.5784 255 255 255
58.4267 -8.49761 20.4698 255 255 255
55.0816 -8.2092 8.9153 255 255 255
4.43989 -10.2126 38.8679 255 255 255
-9.46989 -10.221 36.272 255 255 255
0.306515 -10.4245 40.226 255 255 255
0.321961 -10.3956 40.048 255 255 255
52.6567 -8.33704 -0.463221 255 255 255
59.2524 -9.38405 22.2263 255 255 255
5.35727 -10.7984 39.2516 255 255 255
54.8131 -9.21907 6.04859 255 255 255
60.3179 -10.0858 28.3499 255 255 255
49.4875 -8.20624 -14.7972 255 255 255
49.9878 -8.15746 -15.9001 255 255 255
55.3053 -7.89291 -17.809 255 255 255
55.4695 -9.65698 11.2506 255 255 255
60.5927 -6.84774 -47.3498 255 255 255
50.0302 -8.32022 -21.2643 255 255 255
-18.4537 -10.6717 24.6274 255 255 255
-6.65428 -11.3806 38.9086 255 255 255
56.3927 -10.4113 11.7154 255 255 255
-24.6665 -11.0758 21.0677 255 255 255
56.2051 -10.8542 10.1086 255 255 255
55.2822 -10.9894 6.53165 255 255 255
55.2993 -10.993 6.53058 255 255 255
-18.9947 -11.798 26.5545 255 255 255
-17.8793 -11.9027 27.0458 255 255 255
-3.83728 -12.225 40.2009 255 255 255
6.06746 -12.3587 39.164 255 255 255
6.0488 -12.3174 39.1838 255 255 255
-57.6431 -10.6947 -21.0402 255 255 255
56.6385 -11.8941 11.8604 255 255 255
-23.8889 -12.4006 22.7137 255 255 255
55.9509 -11.9354 7.76141 255 255 255
61.1134 -12.3117 27.1167 255 255 255
-15.4 -12.7892 31.472 255 255 255
59.7998 -12.3082 21.2002 255 255 255
59.6108 -12.4021 21.4634 255 255 255
-22.0101 -12.7312 23.2533 255 255 255
57.3564 -12.8753 12.671 255 255 255
56.3688 -13.8489 8.29986 255 255 255
-18.2892 -14.1298 29.9404 255 255 255
-61.36 -14.335 -14.7016 255 255 255
57.7408 -14.2399 12.3795 255 255 255
-49.0537 -14.2459 -15.0197 255 255 255
-49.1705 -14.1287 -14.9142 255 255 255
55.8461 -14.3097 4.81743 255 255 255
55.0299 -14.6488 1.13447 255 255 255
56.9947 -14.6527 9.33636 255 255 255
-47.877 -14.9513 -14.6622 255 255 255
-48.6338 -15.0933 -14.1524 255 255 255
56.4183 -15.2869 6.01334 255 255 255
57.0956 -15.3113 7.87304 255 255 255
-15.7918 -15.7281 32.364 255 255 255
-56.4227 -15.7513 -13.6365 255 255 255
57.2216 -16.0146 9.25287 255 255 255
57.3879 -16.0852 9.05099 255 255 255
-50.7073 -16.6151 -11.8374 255 255 255
-54.187 -16.7045 -11.496 255 255 255
56.6531 -16.5739 5.5424 255 255 255
56.1681 -16.6243 6.33286 255 255 255
-15.1154 -16.5612 32.8833 255 255 255
-12.0974 -16.6375 35.8778 255 255 255
62.8498 -16.7811 24.825 255 255 255
-7.34802 -16.81 38.2113 255 255 255
-56.9607 -17.7567 -11.9578 255 255 255
57.2265 -17.5155 6.61881 255 255 255
61.024 -17.2376 22.9181 255 255 255
57.436 -17.6019 7.72281 255 255 255
57.6954 -17.5909 7.36319 255 255 255
56.3775 -18.2438 3.65872 255 255 255
0.721088 -17.4603 41.2295 255 255 255
57.0657 -18.8716 6.93233 255 255 255
57.3844 -18.9265 6.61541 255 255 255
-57.8834 -19.4248 -8.48089 255 255 255
-55.4609 -19.4086 -8.0748 255 255 255
3.57023 -18.2837 36.9634 255 255 255
2.02065 -18.3189 41.1183 255 255 255
56.8368 -19.5957 3.39931 255 255 255
61.2244 -19.5999 18.7361 255 255 255
72.9025 -19.7865 0.684227 255 255 255
-50.3818 -20.4375 -6.54747 255 255 255
3.46873 -18.879 40.2357 255 255 255
3.34485 -18.8697 40.6829 255 255 255
58.486 -20.4567 8.34385 255 255 255
57.5493 -20.7594 5.12375 255 255 255
61.9099 -19.8624 25.3491 255 255 255
62.2757 -19.9848 20.7103 255 255 255
-51.1569 -21.7712 -5.21156 255 255 255
-9.44792 -19.8766 37.776 255 255 255
-9.06592 -20.3117 37.9834 255 255 255
-49.0575 -22.7614 -2.08793 255 255 255
4.02016 -20.5277 39.956 255 255 255
-3.44119 -20.5257 40.3518 255 255 255
-14.6912 -21.237 36.1687 255 255 255
-11.2797 -21.3259 39.3891 255 255 255
60.765 -23.3112 11.6387 255 255 255
69.0076 -23.6824 -2.20701 255 255 255
58.5591 -24.1955 6.13179 255 255 255
62.1789 -23.2095 22.226 255 255 255
8.7183 -22.3876 34.0564 255 255 255
7.97108 -22.7089 33.9501 255 255 255
5.8263 -22.7998 35.5004 255 255 255
61.0948 -24.796 13.7374 255 255 255
4.66602 -22.8521 35.7844 255 255 255
-17.1117 -23.1551 36.6083 255 255 255
-1.54202 -24.185 39.6048 255 255 255
12.316 -25.3783 32.6394 255 255 255
64.1045 -27.1335 21.1361 255 255 255
61.5136 -28.4574 11.4443 255 255 255
-47.482 -28.5685 10.7754 255 255 255
-48.459 -30.6508 15.5397 255 255 255
-46.5956 -32.7859 9.96366 255 255 255
-16.6701 -29.9126 33.1091 255 255 255
-4.64802 -28.7782 43.2276 255 255 255
-10.4155 -29.2103 41.2841 255 255 255
-0.128712 -28.9614 43.3796 255 255 255
-17.5918 -30.6828 31.9645 255 255 255
-0.985529 -29.0949 43.4875 255 255 255
-47.7149 -33.885 12.992 255 255 255
-3.00169 -29.6048 44.0847 255 255 255
-4.22276 -29.7201 44.2998 255 255 255
-3.32929 -30.2881 44.9931 255 255 255
-7.50952 -31.4662 40.5039 255 255 255
-3.63543 -30.7304 45.0255 255 255 255
-16.9531 -33.4791 30.6371 255 255 255
-7.22536 -32.1535 39.92 255 255 255
-86.1251 -39.8212 11.1877 255 255 255
51.324 -40.3718 10.4127 255 255 255
68.3352 -43.5518 5.71201 255 255 255
63.1635 -44.0428 8.59863 255 255 255
1.5892 -37.5417 37.1705 255 255 255
60.6666 -45.1493 11.5852 255 255 255
57.4622 -46.1458 13.1322 255 255 255
12.3115 -41.6993 34.0629 255 255 255
50.6675 -46.8828 17.7871 255 255 255
-25.2709 -46.5392 32.6393 255 255 255
-22.0864 -48.4023 32.0108 255 255 255
53.6404 -53.7185 22.6065 255 255 255
33.0663 -50.0832 34.1626 255 255 255
26.5947 -50.723 32.167 255 255 255
-0.288767 -50.8668 37.2057 255 255 255
-0.870767 -51.6696 36.7371 255 255 255
-16.3991 -52.5189 37.2692 255 255 255
23.6727 -53.5837 35.673 255 255 255
-8.73194 -52.3631 38.4844 255 255 255
-32.4806 -52.3556 39.2926 255 255 255
47.3988 -56.7264 28.8965 255 255 255
23.7963 -52.9838 39.0551 255 255 255
-6.04117 -52.8023 39.6541 255 255 255
-5.21721 -52.9588 39.485 255 255 255
-9.51857 -52.9744 39.202 255 255 255
-4.19738 -52.9253 39.8531 255 255 255
-1.24394 -53.4411 40.0184 255 255 255
32.3547 -55.8398 35.0509 255 255 255
-7.38333 -53.4172 40.357 255 255 255
-6.8138 -53.9175 40.6949 255 255 255
-28.9932 67.2822 -50.7953 255 255 255
4.20463 79.399 -79.0048 255 255 255
-69.5439 54.8429 -21.8818 255 255 255
40.4106 87.7118 -98.7433 255 255 255
-70.5108 53.6661 -19.8782 255 255 255
-64.178 56.0485 -25.8795 255 255 255
-63.8368 55.3563 -24.6818 255 255 255
-41.5811 62.6927 -42.7339 255 255 255
52.859 55.7406 -24.6429 255 255 255
-53.2924 58.7985 -34.3882 255 255 255
-53.1975 58.8264 -33.7929 255 255 255
-6.40552 72.9986 -68.2929 255 255 255
58.0692 89.9113 -108.795 255 255 255
53.3025 46.7383 -6.46809 255 255 255
13.9211 77.921 -82.9099 255 255 255
49.1848 50.5986 -16.8442 255 255 255
50.5875 49.1569 -13.4664 255 255 255
-69.9756 53.0194 -23.7501 255 255 255
25.6895 80.6335 -91.0201 255 255 255
47.5393 85.8246 -103.254 255 255 255
-2.4012 73.8831 -78.5766 255 255 255
52.6427 46.3021 -9.94829 255 255 255
53.7018 44.3128 -5.92596 255 255 255
-138.098 87.8821 -110.995 255 255 255
71.1796 89.8633 -120.809 255 255 255
30.0373 78.9361 -96.7711 255 255 255
-131.541 82.4772 -101.782 255 255 255
53.2267 83.1427 -107.889 255 255 255
48.0151 32.4792 20.2596 255 255 255
30.5348 78.8128 -99.1403 255 255 255
2.75937 69.0739 -82.5042 255 255 255
-117.833 68.8888 -83.9509 255 255 255
-117.833 68.8888 -83.9509 255 255 255
-29.5382 57.2105 -59.1652 255 255 255
49.1363 43.4645 -22.6148 255 255 255
49.4315 43.7238 -23.305 255 255 255
46.922 29.4851 15.9992 255 255 255
50.2818 41.0384 -21.3065 255 255 255
54.8647 37.3153 -11.0463 255 255 255
51.6792 38.737 -18.4848 255 255 255
-82.1742 42.0881 -28.3204 255 255 255
49.4198 26.0526 19.6778 255 255 255
-20.6363 56.0834 -74.5253 255 255 255
-113.479 60.4171 -84.4487 255 255 255
-81.675 46.0448 -43.8699 255 255 255
56.0569 21.3359 32.9612 255 255 255
56.5677 20.5259 33.9484 255 255 255
51.9793 22.9004 22.1868 255 255 255
49.7747 22.0091 18.4113 255 255 255
49.6187 21.9512 18.5986 255 255 255
51.2628 21.3669 21.0978 255 255 255
51.4581 21.5422 20.7598 255 255 255
-46.4104 41.8068 -55.9488 255 255 255
50.5927 20.4012 20.4587 255 255 255
48.2474 21.6611 14.7601 255 255 255
47.6985 22.0261 12.9028 255 255 255
47.6985 22.0261 12.9028 255 255 255
50.2498 20.5965 15.4844 255 255 255
54.3375 17.0255 28.2267 255 255 255
-76.9475 35.8852 -46.3382 255 255 255
54.0924 16.1819 26.8182 255 255 255
50.1954 17.7675 17.7697 255 255 255
-81.1959 34.1698 -47.1996 255 255 255
53.4877 26.4156 -21.4258 255 255 255
54.83 14.6412 25.6712 255 255 255
56.5251 13.1934 32.3307 255 255 255
56.5251 13.1934 32.3307 255 255 255
52.9031 26.9191 -25.6227 255 255 255
50.2184 16.6261 15.567 255 255 255
49.5568 16.2639 16.7152 255 255 255
0.172184 45.129 -100.116 255 255 255
55.5663 12.7827 29.3615 255 255 255
47.478 17.0219 8.13745 255 255 255
-0.389336 39.5629 -87.3751 255 255 255
54.6303 31.2641 -52.0626 255 255 255
49.7365 14.6579 14.754 255 255 255
53.1456 12.829 21.6826 255 255 255
49.9217 13.7626 13.5435 255 255 255
49.9888 13.8986 13.2751 255 255 255
47.4949 14.9287 6.22568 255 255 255
60.1215 17.3721 -3.28729 255 255 255
58.4035 18.9302 -12.7129 255 255 255
-62.0628 28.4425 -61.9714 255 255 255
52.3404 11.5103 17.7564 255 255 255
-28.3712 30.0902 -73.7882 255 255 255
1.11325 27.4969 -75.1108 255 255 255
48.6539 11.256 7.13826 255 255 255
50.289 10.3297 11.5246 255 255 255
-72.0989 27.5614 -78.1005 255 255 255
-67.2184 25.2159 -70.8025 255 255 255
-17.1492 20.3092 -62.2897 255 255 255
53.6474 6.25979 17.9718 255 255 255
-18.1234 17.7824 -55.9268 255 255 255
50.6102 7.23268 7.469 255 255 255
53.7681 5.13022 17.2954 255 255 255
68.0569 8.09263 2.17744 255 255 255
53.5657 4.02829 15.0435 255 255 255
-82.4537 14.2326 -56.4443 255 255 255
73.3065 6.80384 -0.422207 255 255 255
-2.43605 1.02791 24.1819 255 255 255
-44.9653 9.91845 -43.7575 255 255 255
-42.2037 9.88239 -44.977 255 255 255
53.7085 0.645806 13.4479 255 255 255
57.4043 -2.096 24.6163 255 255 255
53.8969 -1.0693 11.8169 255 255 255
53.8969 -1.0693 11.8169 255 255 255
56.6285 -2.27819 20.7922 255 255 255
58.0846 -3.12142 25.4781 255 255 255
55.6417 -2.21674 14.6164 255 255 255
55.3997 -2.52345 17.6749 255 255 255
57.4935 -4.43647 21.2273 255 255 255
60.583 -5.3361 28.9428 255 255 255
58.9217 -5.06261 25.9799 255 255 255
-62.3034 -2.47864 -17.3279 255 255 255
49.6359 -3.42434 -9.08146 255 255 255
56.7388 -5.9422 17.6205 255 255 255
75.3225 -4.07349 1.89019 255 255 255
75.3225 -4.07349 1.89019 255 255 255
55.3942 -6.22083 12.6996 255 255 255
57.5869 -6.85423 19.3245 255 255 255
57.5869 -6.85423 19.3245 255 255 255
58.3839 -7.48737 23.4552 255 255 255
60.3343 -8.36046 28.4533 255 255 255
-60.1381 -6.31451 -27.711 255 255 255
-53.8082 -7.07494 -25.2535 255 255 255
50.0796 -7.8361 -10.9774 255 255 255
54.277 -7.20595 -20.0676 255 255 255
-63.1414 -7.43441 -25.252 255 255 255
-62.5138 -7.76406 -23.2991 255 255 255
-47.2602 -7.54602 -22.3985 255 255 255
62.6569 -5.50427 -52.6052 255 255 255
-56.4479 -8.35767 -23.1116 255 255 255
-62.5801 -8.72364 -22.6777 255 255 255
-13.9434 -11.3777 32.0516 255 255 255
-109.964 -9.94739 -22.9876 255 255 255
54.336 -11.7149 1.75581 255 255 255
-99.8861 -13.1358 -18.6232 255 255 255
-11.0628 -14.619 36.8471 255 255 255
-11.3258 -15.3236 36.5807 255 255 255
-11.3242 -15.3231 36.5463 255 255 255
4.59414 -15.348 40.2776 255 255 255
60.5549 -15.3226 21.2617 255 255 255
2.74256 -15.45 40.5549 255 255 255
-44.5995 -16.1578 -12.0992 255 255 255
61.1378 -15.975 24.7102 255 255 255
61.1378 -15.975 24.7102 255 255 255
-45.7623 -16.5749 -10.7577 255 255 255
-20.7892 -16.3813 28.7952 255 255 255
58.2581 -16.5659 14.0463 255 255 255
61.0205 -16.6582 23.7451 255 255 255
61.0205 -16.6582 23.7451 255 255 255
59.0207 -17.0805 14.1791 255 255 255
57.8517 -17.4819 8.81323 255 255 255
-57.701 -18.5099 -9.3415 255 255 255
14.6652 -18.0546 33.5596 255 255 255
-49.2785 -20.5828 -6.0975 255 255 255
-8.26839 -19.019 37.0968 255 255 255
-51.2592 -21.1092 -6.7793 255 255 255
16.2605 -20.1747 28.3158 255 255 255
58.3447 -21.6253 6.32346 255 255 255
9.07326 -21.666 34.109 255 255 255
10.5176 -22.302 33.9662 255 255 255
14.8855 -22.279 35.351 255 255 255
1.87272 -22.2697 39.9304 255 255 255
62.8208 -24.5401 19.2742 255 255 255
-3.329 -22.8239 40.6536 255 255 255
5.37348 -23.1588 40.4127 255 255 255
62.1638 -25.6743 14.3411 255 255 255
-11.5086 -24.1207 38.8304 255 255 255
-25.511 -26.1464 19.3732 255 255 255
10.4616 -25.2495 38.3386 255 255 255
62.2526 -29.0342 11.8465 255 255 255
-48.1185 -28.9943 12.3504 255 255 255
12.5456 -26.6431 34.804 255 255 255
75.2911 -31.085 0.194335 255 255 255
5.34877 -26.7366 37.0268 255 255 255
-2.83659 -29.04 43.9912 255 255 255
1.16669 -29.7621 40.8585 255 255 255
0.573655 -29.4117 43.6855 255 255 255
-5.78059 -34.2064 38.6419 255 255 255
-9.03471 -34.7031 36.4657 255 255 255
-5.82588 -36.0073 37.0958 255 255 255
-1.92613 -36.3282 36.0365 255 255 255
-0.497107 -37.1622 34.2234 255 255 255
43.216 -43.7692 19.473 255 255 255
61.6861 -46.2845 11.7954 255 255 255
63.5454 -46.6385 11.1103 255 255 255
-30.3651 -47.2471 29.9087 255 255 255
59.9534 -51.7168 18.3176 255 255 255
26.2393 -47.9911 29.7649 255 255 255
25.1228 -48.8167 30.9742 255 255 255
23.5482 -48.9272 32.7703 255 255 255
54.6181 -53.2592 21.9221 255 255 255
